ply
format ascii 1.0
comment PCL generated
element vertex 344
property float x
property float y
property float z
element camera 1
property float view_px
property float view_py
property float view_pz
property float x_axisx
property float x_axisy
property float x_axisz
property float y_axisx
property float y_axisy
property float y_axisz
property float z_axisx
property float z_axisy
property float z_axisz
property float focal
property float scalex
property float scaley
property float centerx
property float centery
property int viewportx
property int viewporty
property float k1
property float k2
end_header
-10.2402 -26.3839 -36.124901
12.9236 -26.3839 -36.718201
-23.4767 -16.4566 -35.925301
26.16 -3.2200999 -36.9832
-30.094999 3.3980999 -35.865898
-26.785801 10.0163 -36.1222
26.16 13.3254 -36.4244
12.9236 23.2528 -36.592999
12.9236 23.2528 -36.592999
-13.5494 26.561899 -36.1996
9.6145 26.561899 -36.329399
-16.8585 -23.0748 -35.741798
-30.094999 -3.2200999 -35.728001
-23.4767 19.943701 -35.6591
29.4692 -9.0110493 -36.083748
29.4692 6.7072001 -36.305801
-14.37665 -31.347601 -33.771599
-32.022301 -9.8382998 -34.806252
31.123699 18.289101 -33.560101
-24.304001 26.561899 -33.58345
-16.8585 31.5256 -33.699799
-3.622 34.3092 -34.443253
-8.5857 -37.13855 -32.345749
-1.1402 -37.422626 -32.750099
11.269 -37.13855 -32.137299
17.8873 -33.06855 -33.091301
-33.34515 -23.0748 -31.3822
35.408001 -11.4929 -33.061798
-38.087151 -4.0474 -32.932598
36.929893 9.1096878 -32.639885
11.326675 34.870552 -33.070324
-25.1313 -33.002201 -30.2181
3.8235002 -29.935677 -29.902975
19.5418 -22.084099 -30.123199
31.123699 -1.5656 -28.6248
31.123699 31.5256 -28.7239
16.2327 41.452999 -28.1936
1.3417 -47.023602 -26.87785
-19.197271 -42.110146 -27.05687
21.934235 -42.084576 -26.90802
34.566936 -31.802835 -26.516457
-42.4105 -21.4203 -26.77515
44.187706 -18.987467 -26.341141
-47.425453 -4.0474 -26.8736
45.81155 -1.5656 -27.989101
-47.465771 4.0981874 -26.929783
-31.35675 16.634501 -27.852451
-26.912201 21.732151 -28.098101
-39.649982 23.804335 -27.324751
41.051102 26.326199 -26.355499
-26.862131 37.1021 -27.834534
-1.2069666 36.501301 -26.45155
1.3417 47.123528 -26.763676
13.750851 -50.084198 -23.518675
-13.5494 -38.819 -23.134501
-3.622 -37.965801 -25.2246
11.287233 -37.248714 -24.045242
21.854387 -32.089039 -23.809135
31.967014 -18.9384 -24.834873
-37.459419 -13.976509 -24.168163
36.951645 -9.0974998 -24.127674
-40.038925 -1.9947 -24.7988
37.115273 0.91624999 -24.628412
-37.802822 16.924856 -23.793777
31.829615 23.848402 -23.603989
26.811626 29.19105 -23.734486
11.6895 37.502968 -23.729851
-13.5494 38.66 -23.134501
-11.067499 50.187824 -23.468325
11.269 50.328102 -23.567249
-23.4767 -49.1073 -21.1737
-31.501398 -44.41573 -21.350035
-42.779903 -32.450668 -22.548933
-55.010212 -3.7716331 -21.568933
54.375999 -1.5656 -21.557049
50.978401 16.634501 -22.2052
-51.538498 19.116402 -21.054775
-45.028198 29.157 -21.976763
41.051102 36.489201 -20.8053
-23.4767 49.478897 -21.268101
22.023651 49.373451 -21.215477
-1.1402 -44.915676 -20.04875
-24.242901 -41.463314 -18.300587
19.340799 -39.574875 -19.791973
27.211664 -34.752968 -19.908266
-36.800323 -31.583752 -18.223576
-42.776569 -21.678022 -18.801535
41.726566 -18.662634 -18.623133
-45.2575 -11.4929 -20.023449
-47.4907 0.91624999 -19.267788
-47.053352 11.6709 -18.516649
44.448097 12.19295 -18.235174
-42.779903 21.636133 -18.7251
-42.779903 21.636133 -18.7251
38.561199 26.561899 -18.170799
19.400534 42.516617 -18.485733
-19.340302 43.877602 -18.170799
1.3417 45.109299 -20.05765
-1.1402 55.524799 -19.825399
35.9804 -46.238602 -16.44725
-49.369148 -36.311298 -15.9979
-54.957436 -23.716549 -16.559786
14.164474 57.432438 -16.637762
-32.339649 -52.301125 -14.128412
39.873901 -45.062752 -14.8617
-33.493576 -41.349548 -13.340799
-49.997101 -16.76495 -14.9107
-61.790703 -11.4929 -13.5299
-53.820599 6.7072001 -13.2071
-56.6073 26.759199 -13.248725
-38.367699 34.900398 -14.905149
-39.834 46.948048 -14.174291
1.3417 -64.438904 -10.6678
-17.331249 -61.129799 -11.772699
-1.1402 -54.34605 -11.341676
-41.606049 -49.488174 -11.4473
29.686275 -44.96825 -11.692724
34.839664 -39.994633 -11.847167
-54.936699 -11.693649 -11.57975
-63.504128 -4.0474 -12.001451
53.157852 0.089000002 -12.11405
34.408134 41.981152 -11.090934
-31.762924 44.784302 -11.563576
29.4692 46.416599 -10.8056
-1.1402 54.961952 -11.819976
-8.5857 63.113197 -11.746099
3.8235002 64.616699 -10.6735
1.5841749 -65.51796 -9.0760002
26.722799 -59.718136 -8.7115326
11.269 -56.320301 -8.2433996
-16.8585 -53.750999 -9.8979998
46.014702 -45.231998 -9.8979998
52.932152 -37.465599 -9.4202871
-62.22274 -24.030563 -8.9696751
-53.420601 19.112568 -9.8971996
-62.321339 21.289526 -8.9856749
47.127701 31.971085 -8.1931
-46.641068 34.835766 -8.2440338
-56.567902 36.489201 -7.7403998
16.784233 54.954731 -8.769166
-31.830511 56.910336 -9.3578825
-16.7332 62.946053 -9.878849
-26.785801 -54.511398 -5.5903001
19.5418 -55.460026 -6.1219997
37.741901 -56.166 -7.1433001
-49.586964 -34.210167 -6.2608666
57.1059 -13.1475 -5.9741497
-59.90139 1.060625 -6.6289377
57.661968 8.8301497 -6.6643753
-1.1402 59.523071 -6.4185247
-24.323738 -65.448662 -4.032125
-62.196537 -32.11224 -4.0092626
-68.285149 -9.0110493 -4.9544497
-59.756565 16.309134 -3.0829666
44.613949 41.599022 -3.413075
-51.735798 46.581562 -3.4665329
36.136002 49.744598 -3.2978001
49.323898 48.812199 -3.2797999
24.476076 55.189438 -4.09655
13.705475 59.723202 -3.3613
-26.862701 62.980553 -4.9589996
-1.1402 69.684952 -3.4421248
-1.1402 -70.995575 -1.5275
-6.1038494 -62.508728 -1.184075
-46.616798 -54.485523 -1.56955
-36.7132 -54.511398 -0.57429999
36.087399 -51.202301 -0.91390002
52.416889 -47.42371 -1.2985667
-49.949699 -41.275101 -0.0167
45.389721 -41.847775 -1.5188999
56.993202 -26.3839 -0.85025001
62.289474 0.91624999 -1.208325
-69.890594 4.2253499 -1.863125
70.97438 4.2253499 -1.8566999
-67.809753 21.598301 -0.91425002
54.19759 29.416399 -1.4829888
-44.969025 44.747051 -1.58585
-31.688635 54.665264 -1.5874333
41.547768 57.205631 -1.2876667
-8.5857 -71.852402 1.6839
-16.8585 -70.161148 0.85659999
8.7851505 -71.164871 0.030100001
32.778301 -63.706501 0.029300001
41.097 -59.534599 1.6252
-50.054573 -52.673103 0.61299998
64.575172 -31.928308 1.1101888
-59.932724 -29.674648 0.95471251
-69.027298 -21.4203 0.029300001
70.829948 -11.3355 0.034450002
-72.196404 -1.5656 1.6839
-71.068527 9.1890001 0.812675
62.519825 11.6709 1.14405
-59.833775 24.080101 0.88195002
-61.5401 39.827202 1.6702499
-34.290138 62.933155 0.87230617
32.778301 63.6292 0.029300001
-1.1402 65.154602 1.0006125
22.12204 68.306541 0.73448002
-19.1894 69.591652 1.6694083
6.6722498 71.307846 0.029300001
19.572525 69.596199 1.6684251
-8.5857 71.839203 1.6839
-16.427965 -64.675667 3.9550667
11.269 -65.177254 3.9933751
-29.398296 -60.47694 4.0586166
-45.005875 -50.229313 4.11235
52.592464 -39.581398 3.3787334
57.273949 -34.091049 4.993
62.442726 -21.711151 4.4542999
-64.920624 -18.9384 4.1303501
-66.447556 -4.0474 3.4067001
-65.370552 14.14835 4.1164122
62.088051 21.503126 4.16575
-46.9669 46.687332 4.4891334
45.392822 47.432816 3.8984001
-30.094999 58.5023 3.3385
-14.37665 64.685036 4.1260748
-1.1402 -67.117905 6.6476002
1.3417 -67.501297 7.1627002
-38.770401 -64.438904 6.6476002
22.2994 -63.266171 6.2472668
-56.734737 -49.754993 6.3919663
-49.886902 -47.859253 6.696425
59.273037 -44.612366 6.6129336
-73.011505 16.45125 6.7503004
59.321766 44.846203 6.4753337
-53.306252 53.079498 6.4836001
49.01585 56.343899 7.0452003
-40.119701 63.038925 6.3810501
39.600101 63.087299 6.4486003
41.051102 62.2453 6.6476002
31.6201 67.634201 6.6864333
1.3417 74.819901 6.0149498
-1.1402 -75.50515 9.1294003
14.5781 -73.995003 8.3021002
52.075031 -54.393497 9.4051666
-59.739899 -39.396751 9.9567003
74.047737 -16.096201 8.5156012
67.928337 -4.0474 9.0677996
76.230118 4.1565084 9.1136293
69.798004 29.023912 9.1474876
-58.315067 34.987869 8.1364336
-66.938393 37.040768 9.4051666
-19.1276 73.280121 8.915
17.22546 73.502518 8.8421001
17.335768 -74.7808 11.1708
-34.113651 -69.476128 11.632133
-68.285469 -18.95385 11.266326
-76.953094 -9.0110493 11.6113
-76.526749 6.7072001 11.3337
74.763702 19.116402 11.6113
69.379364 32.011532 11.239833
-54.9772 43.192265 11.403801
-11.8948 68.740898 11.6113
26.16 71.844398 11.6113
-23.587988 -74.410339 14.205675
-52.123264 -51.588818 14.331483
49.243099 -51.202301 15.0639
-71.002502 -1.5656 14.0931
17.060001 -68.875198 16.5749
29.661966 -64.535202 16.332666
-56.850899 -46.566051 16.5749
71.2509 0.91624999 16.5749
-69.841393 11.908234 16.3501
68.790398 16.634501 16.5749
-51.604198 49.477402 17.1644
45.434902 55.114319 16.755835
-6.1038499 71.167725 16.818199
-6.1038499 71.167725 16.818199
6.1820502 71.223053 16.65395
-44.0159 -59.475101 19.056801
-45.17635 -58.437798 19.056801
-70.031845 -21.399099 19.079876
68.887901 -21.4203 18.2295
-71.894104 4.2253499 19.056801
-68.902367 19.392168 18.781034
-65.517624 29.093863 19.056801
63.49683 32.628601 18.781034
-59.570576 39.302898 19.056801
53.027199 48.1091 19.056801
-29.2677 65.464157 19.056801
-16.678066 69.592346 18.894983
-3.622 -80.657204 21.538601
8.7871494 -79.696701 21.538601
-50.284752 -54.777397 21.538601
-72.990204 -6.5292001 22.1376
-26.53797 -77.616501 25.002234
-43.856602 -69.402496 24.8477
-61.541855 -54.175766 24.002018
62.281403 -51.20327 24.017834
-70.653618 -42.110764 24.011894
79.779648 -11.4929 24.020451
-81.209183 0.91624999 23.925724
81.371971 4.2253499 24.020449
-71.353737 14.395284 23.744699
75.212952 29.06925 23.992533
-53.325314 49.813183 24.365549
64.214897 48.649502 24.8477
36.912666 63.381851 24.15395
76.439598 -28.038601 26.5023
-72.642548 4.2253499 29.811399
-70.891098 16.634501 29.811399
-53.227852 49.696999 29.420399
23.151352 -38.625378 -28.440962
41.051102 26.326199 -26.355499
-2.3810999 -52.974064 -22.502783
-50.371872 -2.8065 -25.065613
-2.4282374 49.558998 -24.662231
33.661751 -50.197086 -14.875675
38.349472 48.874378 -13.504766
21.1964 -67.432899 -1.13815
38.260288 -58.850372 -2.6488998
41.051102 -57.151077 -2.3682749
67.352974 -22.136837 -1.2059751
-69.442856 -7.7701249 -3.2217
69.812569 2.5707998 -3.561425
58.375206 38.056244 -2.7764468
-49.357025 49.23547 -3.4403844
-38.616161 58.110817 -2.4476833
-2.3810999 69.849609 -3.2743375
21.7479 67.35363 -1.3087333
7.5311651 -72.832397 2.973897
70.753029 18.294493 1.6499251
-67.456573 27.580534 2.7214749
-18.025263 -73.000626 7.9428
-73.030365 -22.330448 8.0859966
53.530987 52.781178 7.9400663
-43.941811 -64.329315 12.695814
-62.666603 -47.574524 13.812996
-62.666603 -47.574524 13.812996
77.78064 2.5692959 12.888948
77.78064 2.5692959 12.888948
-74.960861 18.168589 12.632071
37.757465 67.365379 13.526845
-2.4730222 -79.292595 17.950804
48.122818 -62.897301 18.303726
-53.581081 -58.994888 17.999262
-75.108742 -28.427013 17.55615
-79.177811 -2.8064997 18.040848
-77.586372 17.668625 17.864965
-69.215935 38.541012 17.764372
-53.390095 58.087337 17.924328
-34.494175 71.206718 17.845272
-6.98629 78.785294 18.120987
0 0 0 1 0 0 0 1 0 0 0 1 0 0 0 0 0 344 1 0 0
