ply
format ascii 1.0
comment PCL generated
element vertex 140
property float x
property float y
property float z
element camera 1
property float view_px
property float view_py
property float view_pz
property float x_axisx
property float x_axisy
property float x_axisz
property float y_axisx
property float y_axisy
property float y_axisz
property float z_axisx
property float z_axisy
property float z_axisz
property float focal
property float scalex
property float scaley
property float centerx
property float centery
property int viewportx
property int viewporty
property float k1
property float k2
end_header
-10.1641 -32.504101 -50.389198
-13.3182 -30.910101 -49.234798
23.344299 5.2644 5.3250999
13.0999 -35.542198 -56.535999
-7.6433001 -32.842701 -52.023499
13.3337 -34.018299 -49.336399
23.344299 5.2644 5.3250999
42.464653 19.48765 99.538101
36.305252 11.0455 -99.798248
-53.01405 -31.051449 -82.743301
1.0408 5.3274999 -82.010597
1.3105 -8.6823997 -81.376305
103.159 -10.6038 -63.345001
103.831 3.4967663 -60.395
3.7069499 -27.23465 -58.560852
4.0873666 -32.1241 -55.927601
65.133606 29.304434 -48.789902
6.4456997 -26.7752 -47.68
49.834064 29.294167 -47.752197
70.111664 36.873901 -47.658798
31.414499 29.1201 -43.222
19.62965 27.140949 -37.103851
95.760551 -1.398675 -34.8381
63.947201 -45.662998 -32.376099
31.0219 34.6759 -23.274099
29.581451 -34.323448 -22.909
46.930965 34.521667 -17.487967
-11.31525 -11.512251 -14.020876
-12.8241 8.6416998 -13.1851
-4.4174004 -32.438999 -12.670401
20.1434 -9.0025997 -10.2876
9.0669994 -9.3881502 -9.6987
20.994167 -1.8126999 -9.3754339
41.5387 -8.5831003 3.5230999
40.566402 1.3952001 7.0057664
27.756618 2.8448167 11.2736
36.195499 -0.036200002 48.245098
49.9403 -1.2038 47.085854
34.142139 -4.2627997 49.947502
52.546432 -1.3952999 57.083431
40.223122 1.1107 58.023346
57.947067 -11.595433 71.171761
43.443848 1.0294501 71.514603
49.295166 12.201734 90.743431
44.945099 1.1643333 93.408104
44.486492 21.342165 105.1965
63.819427 -18.049906 -94.508842
58.762009 18.472021 -89.999947
58.856262 -23.035583 -84.700851
98.691414 -22.517248 -84.322815
33.287273 -18.956829 -84.262398
-44.221535 -12.611791 -84.793564
106.0798 -2.5286374 -84.264908
-42.676891 8.2955856 -82.723434
33.512684 17.936234 -84.101196
-27.928856 -25.885031 -79.458038
38.250183 -22.857 -79.217491
-0.97759998 -10.0348 -80.939796
2.6245849 12.226766 -78.392296
-17.603397 24.838463 -79.121399
-58.98119 27.498634 -80.231987
106.30321 -2.6342812 -73.714645
106.00688 2.9212184 -73.862213
23.150484 22.201309 -73.99968
33.520832 23.311695 -74.409798
69.013557 -25.483461 -68.904625
-77.606674 -2.6313939 -69.309586
17.852287 23.718647 -69.557404
-7.7912416 -26.365278 -63.840485
-44.052479 -12.088166 -62.012501
104.39938 -7.5741234 -64.045509
-78.80825 -2.5626731 -63.912056
104.99831 8.1314526 -63.900345
104.99831 8.1314526 -63.900345
13.0999 -35.542198 -56.535999
33.740501 -31.598551 -60.483009
2.549346 -27.770407 -58.516331
33.075516 25.895754 -58.936691
59.033447 -25.510317 -54.893234
54.106224 25.344641 -53.97422
16.47913 -33.304249 -50.238487
32.710125 -27.519337 -48.18581
38.156586 -27.870789 -48.37595
92.33062 -2.34355 -47.96817
-84.960838 2.5663028 -49.12933
-64.115204 24.946663 -48.78392
2.5478394 25.831882 -48.39695
58.566387 -47.693623 -42.874249
89.741333 -2.6736534 -43.570621
36.3153 29.792999 -45.998299
38.700409 -51.386944 -37.995453
-82.128197 -20.59 -37.410198
86.689301 -13.59795 -39.900352
86.214424 13.132239 -39.036839
58.642548 -26.254875 -30.011623
59.040024 27.950069 -29.658787
69.752892 -42.70369 -20.903074
85.447304 -23.692232 -25.200567
58.738243 2.2866209 -22.490681
-58.499561 22.954386 -22.885214
80.081924 29.882526 -25.344826
82.731377 32.5634 -25.279224
69.183182 43.244324 -21.758278
67.289795 -44.124199 -20.205376
30.4648 -24.7766 -15.5316
52.958 -14.523899 -20.389299
51.973949 17.107901 -20.141825
9.5004663 13.132242 -10.579175
33.306156 22.64237 -15.033858
41.353676 -3.1965251 -5.9188499
-14.693733 2.3166666 -8.7600498
13.79265 42.710114 -6.415875
27.675251 50.491974 -9.7499666
12.57096 -44.109058 -4.1881084
-18.337616 2.6875751 -2.9460108
43.52219 1.9729028 -1.8200666
22.222391 7.4050422 -0.31798336
24.797501 5.1167002 6.3790998
36.740952 -5.4595833 12.979933
9.2993622 2.5119958 12.549351
10.849979 -7.7705212 17.793392
11.298122 12.650509 17.796518
14.136925 2.7735624 28.066017
15.888039 -2.6199188 34.693436
34.45509 2.5357206 33.245972
47.343849 -2.4424458 38.603725
47.343849 -2.4424458 38.603725
-0.56892502 16.524851 37.1931
-5.8575459 -2.4040751 43.354603
4.3620996 -15.947401 48.111599
21.590361 2.5971179 53.666862
39.178444 1.7642334 53.063248
21.622932 7.7315969 53.662792
20.8701 -15.87685 59.2076
-0.83188885 -2.1680999 58.590099
4.2546916 -1.8658167 73.871773
28.649988 2.8514831 73.570129
38.403767 2.6932666 73.945976
17.65423 15.847003 74.549927
43.08363 11.965775 93.440765
0 0 0 1 0 0 0 1 0 0 0 1 0 0 0 0 0 140 1 0 0
